ply
format ascii 1.0
element vertex 369
property double x
property double y
property double z
property uchar red
property uchar green
property uchar blue
end_header
0.2947479665669975 -0.5371356246384169 1.5113937472767449 24 26 67
0.2904837331104043 -0.2509151089794996 0.9465704581460651 114 128 129
0.2664247874512608 -0.2428020868272594 0.9618288756692547 73 82 89
0.1532228421480644 -0.2610050819525683 1.0634209944291846 70 72 67
-0.0756704341437261 -0.3140075905912275 1.3785886684102415 125 130 134
-0.0515309774558855 -0.3029114010326749 1.3576028598095127 177 180 187
-0.0515377576837054 -0.3029583580938062 1.3575805668614618 177 180 187
-0.0515377576837054 -0.3029583580938062 1.3575805668614618 177 180 187
-0.0924696550349835 -0.1907204615122366 1.3018614435019413 167 160 144
-0.2460418863849323 -0.1586332834818054 1.4422896312920426 165 154 136
-0.1252990303823500 -0.0884132040877558 1.3284115019734375 189 166 150
-0.4809832988301310 0.0315036436677868 1.6518801380479633 140 136 127
-0.4392243805681289 0.0474255237148504 1.6066867846146144 166 161 181
0.2043490262593637 0.0921032282134756 0.9230526459275203 114 135 140
-0.4327865104175468 0.1989088781614133 1.5630851987100396 254 249 245
-0.0953064839689100 0.1667446237919014 1.2214707185858460 89 92 97
-0.3467707040302735 0.2304603918572003 1.4527187126263825 216 198 196
-0.4100015603974397 0.2469641850570139 1.5217175842681896 162 161 157
-0.4100015603974397 0.2469641850570139 1.5217175842681896 162 161 157
-0.4366488988718805 0.2632011931021844 1.5475965739288222 160 146 171
-0.4366488988718805 0.2632011931021844 1.5475965739288222 160 146 171
-0.3266064822246209 0.2520852013905620 1.4425237888101996 251 246 243
-0.1445804932285567 0.2240742672883586 1.2809735605794985 80 85 81
-0.4435554060576157 0.2787672851133333 1.5461725986963719 151 147 170
-0.3926399466929343 0.3676641656769370 1.2727118693620640 195 184 162
-0.4295546864327793 0.3687365743813463 1.2374618245940530 74 61 78
-0.4295546864327793 0.3687365743813463 1.2374618245940530 74 61 78
0.2847161051008859 -0.5371170346600159 1.5114025817306795 11 24 79
0.2847161051008859 -0.5371170346600159 1.5114025817306795 11 24 79
0.2259328764196172 -0.5044557041723945 1.4256287078900967 48 35 42
0.2321841754485343 -0.4849732228054915 1.4243701201456098 241 192 177
0.2321841754485343 -0.4849732228054915 1.4243701201456098 241 192 177
0.3452437778369900 -0.5303182455376079 1.5801102931667150 28 38 107
0.3452437778369900 -0.5303182455376079 1.5801102931667150 28 38 107
0.2431866237609685 -0.4758748858384229 1.4207005040319227 228 168 144
0.2619102549558549 -0.4767530884092211 1.4562675444472040 234 162 140
0.2818684926305670 -0.2468709524515975 0.9450588132903212 59 74 77
-0.1475423203903254 -0.3371247741051211 1.4513386298394861 88 94 108
-0.0548908822879351 -0.3069785260995858 1.3563866654030243 60 61 79
0.1204251735318928 -0.2480062636833248 1.0968433469263741 110 111 106
-0.0989864506313234 -0.3127492688211204 1.4071306732621667 172 173 167
-0.0989698495380916 -0.3125504966666519 1.4073541865462291 172 173 167
0.0626570545829547 -0.2541668816083226 1.1431314401869077 26 25 39
-0.0937312781245454 -0.3065572724505169 1.4109692897430843 44 48 57
-0.1218876864859245 -0.2962071535395525 1.4176451182622545 41 45 44
-0.1481760079460892 -0.3017082052659801 1.4544382755927427 178 177 175
-0.1481760079460892 -0.3017082052659801 1.4544382755927427 178 177 175
0.0218580275838727 -0.2272766053022853 1.1873881342944539 148 140 121
-0.1458383298683470 -0.2768125445962331 1.4510151887359246 38 46 57
-0.1550035972079982 -0.2459144815502484 1.4409838738485066 91 107 130
0.1181911868801060 -0.1848875735280947 1.1299343990137882 108 115 107
-0.0842990741614862 -0.2002216995126206 1.2886305582542423 169 155 142
-0.2740493187668753 -0.1577639160902556 1.4673283864256550 65 65 63
-0.2648582161014895 -0.1543963732524918 1.4614875426595810 162 150 134
-0.2844321139827620 -0.1433631224965612 1.4938633784125996 118 109 100
-0.3310343705675300 -0.1286698912720015 1.5415357005306569 119 106 98
-0.3310343705675300 -0.1286698912720015 1.5415357005306569 119 106 98
0.0139330343594212 -0.0851233532316747 1.1851300769829984 101 93 90
-0.5166234001986464 -0.0601938549582079 1.7263812614923921 103 105 104
-0.5256145812816647 -0.0390713455599455 1.7212809955663164 154 152 166
-0.4051527205378203 0.0125263522995797 1.5825738024186291 170 163 153
-0.4051527205378203 0.0125263522995797 1.5825738024186291 170 163 153
-0.3404107209022612 0.0178736734980270 1.5245067902127742 255 255 255
-0.5018848894348330 0.0367569518151518 1.6795428070786591 158 154 143
-0.5018848894348330 0.0367569518151518 1.6795428070786591 158 154 143
0.1830120592616610 0.0235170994657861 0.9734069864471225 57 57 57
-0.4370354938627266 0.0527855161231166 1.6137199583485025 255 254 255
-0.2536396156041287 0.1511163787911848 1.3948976811714402 130 124 124
-0.3611096997409270 0.1805333677098111 1.4927149263983504 251 246 240
-0.5343939048034578 0.2241401571672176 1.6614544081903067 230 227 234
-0.3506891862497895 0.2216699570782233 1.4802680866409417 178 175 168
-0.3506891862497895 0.2216699570782233 1.4802680866409417 178 175 168
-0.2547788221741852 0.2388628595835076 1.3879848554021685 75 90 83
-0.3572280095601372 0.3650803300296395 1.2282737109506126 128 118 119
0.2746971015628854 -0.4731755868115821 1.4679149966811478 246 180 154
0.2777798375539368 -0.2852929702370522 0.9434898839645756 98 102 103
0.2604881413752290 -0.2817230486585233 0.9600915879877292 105 115 107
0.2859705641506678 -0.2786097721295511 0.9470038111029127 94 99 92
-0.1613646040813894 -0.4823959071389731 1.7648940950558891 67 69 107
0.2897327612742995 -0.2444542608770113 0.9466291384806211 46 53 59
-0.0482292651100547 -0.3464284884426792 1.3742983173480166 170 173 178
0.1465245492851930 -0.2637834525723465 1.0687795462331939 111 124 132
-0.0495627561328291 -0.3141187298037251 1.3641100552014791 196 194 195
-0.0495627561328291 -0.3141187298037251 1.3641100552014791 196 194 195
-0.1578779658457047 -0.2811008551650753 1.4547219018306792 48 53 82
-0.1421338200507972 -0.2623713821116508 1.4467918327832294 39 55 71
-0.1053355449371135 -0.1904278290681016 1.3204148460930556 106 97 92
-0.1589205259090714 -0.1764050508075856 1.3715154106273559 114 101 92
0.0028814188419144 -0.1527310604670275 1.2171426178063616 71 65 99
-0.1761791764200043 -0.1711352605032228 1.3843875941421115 122 112 102
-0.3793849711055774 -0.2019220977705338 1.6644911054924794 246 246 246
-0.1944808032624049 -0.1651944820092874 1.4060813238932053 113 109 98
-0.2117381885458993 -0.1605886005451496 1.4231388847827786 117 114 109
-0.2601487949212662 -0.1619124725052115 1.4532880125481367 69 58 62
-0.3116279477434230 -0.0842975968946298 1.5226526325305603 240 239 244
-0.4861678250641866 -0.0404135977518242 1.6927028374004971 255 254 255
-0.2819310190097797 0.0050953809893787 1.4674085191095940 247 247 245
-0.3381560169655249 0.0072312144500319 1.5155842332398470 167 154 163
-0.5045447937106862 0.0585244463920829 1.6816085920882300 165 168 175
-0.2579635789429394 0.1221159607924437 1.3899431113820564 194 180 169
-0.0968412539812034 0.1139630650671325 1.2460538191152652 255 250 244
-0.3111773773035800 0.1696955424345149 1.4471730299897236 235 224 220
-0.3110503888113912 0.1695676295734161 1.4466659803653472 235 224 220
-0.0974400953336510 0.1492349449587306 1.2496809164837603 134 113 96
-0.1572719925601796 0.1543890370452850 1.2686963513283380 248 249 244
-0.3325029688916561 0.1819519853773551 1.4473762354022688 158 145 152
-0.3325029688916561 0.1819519853773551 1.4473762354022688 158 145 152
-0.2094397719164646 0.1687023415372094 1.3310903872288611 249 249 247
0.0153547108946723 0.1427065439105591 1.1125651108170254 77 81 82
-0.2154736227810194 0.1773831870955322 1.3412942804298102 115 90 86
-0.2748296192616032 0.1840513163558178 1.3789603365031171 247 246 241
-0.2943859559114274 0.1883385534995225 1.3941457184501167 250 246 247
-0.4814086817311540 0.2201014750681760 1.6079017386267682 167 163 164
-0.2705177030198870 0.1903156059848672 1.3821887904513170 139 117 94
-0.5073180767420741 0.2263366983748969 1.6376584811043775 169 165 166
-0.5518343977073692 0.2389157904026112 1.6688269167438476 156 149 157
-0.1729378546512729 0.2135602646840893 1.2835309763621230 255 255 255
-0.2408109747351033 0.2337480673699276 1.3706585704552112 89 100 104
-0.2690410810486029 0.2382471154113815 1.3864336966943163 255 254 249
-0.5106813511932622 0.2931611451877960 1.6200339044515799 165 167 164
-0.2823649919337908 0.3450613395146904 1.0483492853047294 123 112 118
-0.3191719596009809 0.3522959670661293 1.0364278772243909 175 165 155
0.1597229141922550 -0.3331683620300190 1.1357796266421292 90 138 204
0.2854853825021576 -0.2532651754089119 0.9437857847260841 35 38 43
-0.1120708174270080 -0.3115968132460050 1.4186845793114551 111 115 118
0.0023091326864754 -0.2175117632908958 1.2165090546880766 98 91 83
-0.0511768932560765 -0.2033668819989672 1.2685431818271760 113 104 89
-0.0681939175799576 -0.1987830104407421 1.2827911056292460 112 108 97
-0.0924012860325683 -0.1426231505917425 1.3122835714319117 141 144 153
-0.1595868563467585 -0.1244219222388942 1.3669517251927266 151 147 161
-0.2683508784133207 -0.0954792947943187 1.4700165866020218 144 148 159
-0.2414960591255069 -0.0622936643375191 1.4365440696843779 200 186 173
0.2811960717312776 -0.0122331820825709 0.8713733871474106 111 120 117
-0.4081918192921993 0.0355307191098783 1.5870810320346422 160 167 177
-0.3844109493390150 0.1286252299023150 1.5461407214398406 181 204 194
-0.1181353229359820 0.1195387930456298 1.2598637298108397 252 243 238
-0.1420834863874984 0.1254272185607564 1.2828423966152542 251 246 243
0.0356477497014140 0.1059053619627455 1.0822729254243080 159 169 171
0.0024431536340894 0.1233269996178499 1.1341421391571596 51 46 40
0.1761929838823896 0.1057394359672353 0.9641173276418575 98 99 93
0.1406254465881367 0.1148139318225612 0.9956352552099466 75 78 69
-0.3378726949975208 0.1765741863725315 1.4733063817079981 243 238 235
-0.4111641152630438 0.2035736535240167 1.5470968324319541 179 175 172
-0.4360265131545117 0.2092036080579746 1.5680916622910690 178 174 175
-0.4566642189427294 0.2140190508808850 1.5829439331231530 166 157 158
-0.5302635560020579 0.2430800078606304 1.6496216351591448 153 142 148
-0.1686437893363422 0.2189145847712413 1.2712961760531385 176 167 168
-0.1706619376639610 0.2416253449074847 1.2706763402985624 166 167 171
-0.2787760713735437 0.2684433388180744 1.3741191088963731 165 168 173
-0.3095831530832650 0.2886336782973106 1.4108567233732445 246 242 239
-0.4991973418791712 0.3532461253617830 1.3755808225932964 27 46 14
0.2165676182523482 -0.4704297184496710 1.4290968432670168 151 111 112
0.2630415992272371 -0.2926147616092725 0.9560999259270625 115 125 135
0.2858229330330894 -0.2877890821017566 0.9453262318149082 38 43 37
0.2522489989415792 -0.2785560074085231 0.9794027808547576 46 47 41
0.5603950418207754 -0.3377832242048001 1.2843542845925893 86 133 203
0.1289085943803275 -0.2483546037504621 1.0992350219226701 62 64 59
0.1115082833282273 -0.2439353948476025 1.1133963770391120 71 72 64
0.0936334779663024 -0.2400008180787724 1.1321763979770574 66 67 61
0.0419545324138256 -0.2388788323497984 1.1604060127548601 119 126 132
0.1790752896506765 -0.1274006128460944 1.0284213161178213 119 121 107
-0.2005526883326064 -0.1150830750392839 1.4160455079185175 143 141 152
-0.3905635375157579 -0.0629611933097115 1.5989154245285779 253 255 252
-0.3905635375157579 -0.0629611933097115 1.5989154245285779 253 255 252
-0.0980109154627200 -0.0439570624230132 1.2952264612143607 253 253 253
-0.5086022384080074 -0.0478063139075617 1.7100677560359065 125 119 131
-0.2766806385788806 -0.0297617119139451 1.4554204317707482 165 161 150
-0.3925231978304981 -0.0240890209233859 1.5982043643170347 178 170 157
-0.2852138444160046 -0.0181619188181985 1.4662396263621127 255 255 255
-0.4876300287491850 -0.0012273234960106 1.6898329214648566 180 172 170
-0.3945151665017727 0.0434006314010162 1.5734718859933177 255 255 255
0.0425454676586531 0.0971820978143419 1.0861747971224276 61 62 57
-0.4902320968521819 0.1704547978122135 1.6392755686818872 254 254 255
-0.0056187381909001 0.1513133345409686 1.1450406687959367 35 55 64
-0.2173856071859745 0.1902010862835345 1.3370287002377756 185 181 169
-0.1822754112294084 0.1941698121063490 1.2907529495100130 166 161 155
-0.4252855182558292 0.2597888094070544 1.5441371114611264 245 244 242
-0.1716087977394046 0.2337880200781607 1.2812258549953004 255 246 245
-0.3979973913792326 0.2768412803084706 1.5070232492943150 255 255 253
-0.2795695587147886 0.2591223950883410 1.3846413496979564 246 243 238
-0.3116213196492884 0.2687732914475882 1.4230667054268886 249 245 242
-0.3116213196492884 0.2687732914475882 1.4230667054268886 249 245 242
0.2674776082775872 -0.2843947757960005 0.9604128720138838 49 54 50
0.2674776082775872 -0.2843947757960005 0.9604128720138838 49 54 50
0.1818131651625487 -0.2616194063885385 1.0456913257863951 62 63 55
-0.0370661096095828 -0.3400210690265083 1.3824227254095129 118 116 127
0.1985094852268297 -0.2123549212778357 1.0433145061144669 61 70 67
0.0570021166838458 -0.2305213296649915 1.1588844256446611 73 75 62
0.1027451983944224 -0.1869444625452293 1.1343373234880660 81 87 85
-0.0144201267697884 -0.1596442919565709 1.2383064429296757 175 158 130
-0.0965287669941037 -0.1314683288821751 1.3191727728163394 254 254 254
-0.5607495375111259 -0.0868836650564122 1.7555738026747090 100 105 109
-0.3359359743351209 -0.0671364021373526 1.5435771140152621 254 255 253
-0.2770791462345018 -0.0052381768131883 1.4573454854293459 158 167 172
0.1934189086514439 -0.0041915000171451 0.9862296331470471 34 62 73
-0.4223235278697944 0.0234758557632509 1.6081994351380648 252 251 249
-0.4922198561554526 0.0740428613613063 1.6748267570045925 253 253 255
-0.5319054168479930 0.2287732070698709 1.6602773247513960 231 223 220
-0.3066921048661433 0.2429087809488197 1.4212810123899859 248 248 248
-0.1858011531870617 0.2276147504539310 1.2976024972785376 178 171 165
-0.3397332536638029 0.2618844670524845 1.4522717277629207 255 255 255
-0.2954583767339592 0.2538176309269848 1.4021602995758944 168 160 147
-0.2035747855707826 0.2414403023327393 1.3171440295730061 249 244 240
-0.2934283390245765 0.2779976512187505 1.3935986785029666 178 175 168
0.2182931514210671 -0.5047505530669203 1.4341479907064185 73 54 58
-0.1041750404240496 -0.3507442417611528 1.4210551717497184 124 125 127
-0.1016929154884468 -0.2673917955263019 1.4027669904922284 144 149 152
-0.3940088318798529 -0.1920714751828580 1.6701754383295133 47 64 82
-0.3598334138835567 -0.0558684727188300 1.5691169923470971 162 156 142
-0.2645241217148302 0.0092242825806962 1.4453149396728868 255 254 252
-0.5235929513465812 0.0455490543905555 1.7008133487996691 243 243 245
0.1411592377280046 0.1110229323794142 0.9922714756267268 98 110 108
0.1411592377280046 0.1110229323794142 0.9922714756267268 98 110 108
-0.1973156396379813 0.2135131105858941 1.3153402301169628 254 253 249
-0.1860247953379402 0.2519480527933485 1.2926967843116610 192 187 181
-0.1405236889051338 -0.3172510059865952 1.4415625632898861 40 47 57
-0.0752458685002807 -0.2971782920145715 1.3852757233913224 39 49 51
-0.1651498990604995 -0.3036588858609965 1.4684490486019142 120 162 220
0.2382596090603914 -0.1451892585043044 0.9673967024117670 101 111 103
-0.4262535093483983 0.0105829128451556 1.5992557940946575 249 249 251
0.0487899429467134 0.0883645257517384 1.0790955901080912 67 67 57
-0.1671269266154733 0.2031293873175468 1.2722660497815985 253 253 255
-0.4026487288187454 0.2572558422711083 1.5357635609650639 144 142 130
-0.3023063373497042 0.3005713529585928 1.4063868016358290 255 255 255
-0.0096950429612350 -0.1419577065848205 1.2358176894765502 60 65 85
-0.4022271336960669 -0.0498305140359949 1.6029233957709761 245 245 245
-0.2418553620484934 0.1728766707232244 1.3585112181157355 220 211 206
-0.0327044203440537 0.1618879223143566 1.1758509573365654 52 78 77
-0.3708386686742711 0.2128509479589910 1.4787253769538331 245 241 240
-0.2389235815779580 0.2224316639986782 1.3597004151084748 117 129 125
0.2153493866572962 -0.1999905496007344 1.0146053053356114 27 34 40
0.1179966615462698 -0.1771814289175139 1.1142949480877584 41 51 52
-0.2950865682036393 -0.0697675107177744 1.5100128592281168 222 214 211
-0.4494952005579098 0.1886392371707305 1.5997757547562292 149 154 158
-0.4494952005579098 0.1886392371707305 1.5997757547562292 149 154 158
-0.5271615726618297 0.2569618295888005 1.6793966934682363 245 245 245
-0.1316649129013129 0.1949160099285480 1.2582195103760621 115 130 123
-0.4949663637170019 -0.0817174350490806 1.6888753444601816 142 137 131
0.1604354300924713 -0.0317618380082257 1.0042281870605081 135 152 168
0.3673431607646058 -0.2197679525672687 1.0268474550964677 94 107 100
-0.1469923409960292 -0.2839649543640939 1.4493990128825216 34 44 56
0.5874604510853235 -0.2120775068315842 1.2159468369111699 66 81 78
0.6368247812967384 -0.1974396031653991 1.2630919094783455 69 90 91
0.6540826616558159 -0.1881944860342142 1.2823299136048176 25 30 24
0.3445240165222291 -0.1178924438441016 0.9769051067284656 155 155 143
0.7959140482513256 -0.1454947476619041 1.4154668040675493 55 55 47
0.8142351845317219 -0.1405583363527713 1.4361762799905098 73 66 56
0.4381365551998710 -0.0982517035695211 1.0655600761144508 39 41 38
0.8504219779080778 -0.1300153647772568 1.4701058240430991 63 53 51
0.8672014370113107 -0.1248696556737086 1.4844735498458412 72 64 61
0.8909940850806478 -0.1174287231398663 1.5074911009324155 99 91 102
0.0193719556631296 -0.0992343053129983 1.1794175107753588 150 138 138
0.6968235758578676 -0.0165451434952385 1.3117485136462332 158 155 138
-0.0857262529844935 0.1079643840806079 1.2337518856773098 95 94 89
0.2741957050833812 -0.2899984549178940 0.9473437871470428 64 64 54
0.2950878058170620 -0.2840641830360332 0.9422328220994923 76 82 80
0.2950878058170620 -0.2840641830360332 0.9422328220994923 76 82 80
0.2056621655449945 -0.2741440064694252 1.0106145494538359 56 55 50
0.3294520607139508 -0.2521206726772081 0.9865651130985180 74 91 83
0.3294520607139508 -0.2521206726772081 0.9865651130985180 74 91 83
0.0028108178793658 -0.3369057146472214 1.4205132866145895 143 141 144
0.1872665303193007 -0.2206693034457514 1.0446027180741004 100 109 116
0.0613027680481051 -0.2424739138913138 1.1473365259530066 254 246 244
0.0049831745191199 -0.2229648182543044 1.2036628422538438 157 144 127
0.0054322490609980 -0.1957350900160838 1.2252913008769093 139 144 138
0.0054322490609980 -0.1957350900160838 1.2252913008769093 139 144 138
0.2453646894164002 -0.1491438122705461 0.9645964351362815 86 96 97
0.5604220227532610 -0.1587864031554758 1.2066918292749278 35 43 46
0.4461604761250135 -0.1352438501488047 1.0863653837533684 172 161 139
0.6485069335339217 -0.1563506085586706 1.2981508439160754 130 119 89
0.7520894406098881 -0.1562179868077170 1.3721551979190447 42 44 43
0.1843233777552639 -0.1128057435964876 1.0175101020640882 94 103 108
0.4381286883495910 -0.1023483006013391 1.0619481544450275 88 101 107
0.8461757708606189 -0.0898559602903799 1.4798489088785478 147 120 109
0.6519590096578584 -0.0370339434517237 1.2687683369911744 40 38 39
0.8137106766533502 0.0170803212004695 1.4245823074320123 237 231 205
0.7450067275227727 0.0325259914207984 1.3524102959066768 128 114 114
-0.4317133580902379 0.0311662883875626 1.6052266098693462 166 153 171
0.3266467377688930 0.1031697781489616 0.8904790607457171 33 37 38
-0.5438275427972243 0.1735575265785551 1.6879969500940923 252 251 255
0.0529526144540787 0.1642278690908199 1.0657555274631634 120 135 130
0.8209649145577828 0.2475654019554727 1.3688409596614841 25 25 23
-0.1047470591691601 0.2059262129144648 1.2207745438194857 31 84 92
-0.1724982220552227 0.2298954587012357 1.2869591576782160 238 237 232
0.7360294110300747 0.3053661503880640 1.2695391182291396 125 119 105
0.7360294110300747 0.3053661503880640 1.2695391182291396 125 119 105
-0.3644770581382242 0.3653273009413964 1.1856851359066527 177 166 162
0.2803073751887418 -0.2565927405418769 0.9451751957040012 111 130 137
0.5735806449182694 -0.3376683283561466 1.2838366681508144 17 22 42
0.5735806449182694 -0.3376683283561466 1.2838366681508144 17 22 42
-0.0791043615482067 -0.3558383761942898 1.3902576312465629 50 62 84
0.4068983139440445 -0.1470140681156955 1.0488760853634207 150 139 119
0.4068983139440445 -0.1470140681156955 1.0488760853634207 150 139 119
0.3272990072721847 -0.1320747783364781 0.9538131737976872 144 145 137
0.8051486428598484 -0.1570761637271971 1.4220828109978003 72 71 76
0.3773683930882109 -0.1031306998295228 1.0114286204509433 13 25 25
-0.0276935992760089 -0.1319715007676427 1.2643245950762614 129 119 109
0.7349398595150022 -0.0178697931258175 1.3541884803362911 186 175 147
0.5828311882571615 0.0010606550972775 1.2127272693088953 143 143 135
0.2815056349496753 0.0032141760765164 0.8799324135359685 109 124 127
-0.5038407851427651 0.0588355525096093 1.6799481245183250 165 168 175
0.7799122077086446 0.1500595654363727 1.3551383400095307 218 207 201
0.7518596714366985 0.2177382752812475 1.3072213032994335 72 68 67
-0.0719503046305626 0.2097731698972243 1.1802659567333051 189 186 179
-0.0946537766118304 0.2217558889766740 1.2089143338052919 159 157 162
0.8091414221964227 0.3335515371784324 1.3376023331377478 120 125 119
-0.1285867189675496 0.2606741929422425 0.8724173946106444 239 229 238
0.0378113646405335 -0.2267632294914273 1.1817858129205350 87 83 80
0.0903355997065393 -0.1894813715057503 1.1369205915977285 222 223 218
0.6658305965683000 -0.1986092760335903 1.2846845967843303 26 34 45
0.7532980057263118 -0.1731763981821081 1.3713445838635030 25 29 41
0.7704071070322090 -0.1679257288621204 1.3876222138762602 36 43 53
0.7144813572939425 -0.0205865764063454 1.3324526828309995 50 53 46
-0.5374496124331472 -0.0542732562349021 1.7355485988124182 129 143 156
0.4609293354737689 0.0575897070684565 1.0487759631705107 145 141 130
-0.0588868583908268 0.1180573681421549 1.1785480370439039 250 241 234
-0.1905336730677833 0.1382751966410557 1.3301909546805388 244 236 234
0.6923691525775960 0.1692484032951173 1.2600038615426803 154 139 110
-0.0423949633240366 0.2067170955499757 1.1735235483769937 194 204 196
-0.2654366571326090 0.2606683094704527 1.3746131194895892 134 202 213
-0.1342864737287199 0.2589790029553697 0.8731893118155415 41 37 52
0.0901439377132728 -0.1476523289424570 1.1343640031374012 134 139 133
0.4509011057819508 -0.0761203227454644 1.0728581958507801 15 21 21
0.7306576703471116 -0.0802413239404734 1.3616119528934112 161 146 125
0.7850011574760059 -0.0832381762504527 1.4224137280529225 48 46 31
0.7060392745831262 -0.0762821838488947 1.3316854372717966 57 67 59
0.6463036264976182 0.1746041799547919 1.2136332153906908 119 117 96
0.7313766765524913 0.2046195737144237 1.2947654782336855 76 79 72
-0.0252786793791279 0.1762474826389981 1.1585160302097659 63 75 71
0.0195754776737221 0.1721013039218453 1.1050772280799717 63 67 66
-0.0623955632872246 0.2009853813836248 1.1780657579185738 189 190 185
-0.0610325977953641 0.2241906582280546 1.1681194575428617 163 171 173
0.3076103872518670 0.2879176375703433 0.7871230366849807 52 75 83
0.0883828158062741 -0.0530898874854197 1.0994890214846327 202 203 207
0.2876769502486367 -0.0028184086428528 0.8782347239003498 40 49 46
0.1834571107760538 -0.0022018899125278 0.9850509775493176 133 153 164
0.7405141847993916 0.0536983677459730 1.3384765633012317 222 203 173
-0.4329206096447130 0.0434523711741020 1.6146850216918605 255 255 253
0.0964740400732838 0.1557925636338645 1.0432641129019227 24 42 46
-0.0970208974503474 0.2137107765537787 1.2141071251396538 241 236 232
-0.1227091841032564 0.2889020792293321 0.8854253375958552 26 26 34
-0.0509384418262084 -0.3205259352421266 1.3643859407279944 225 227 239
0.6799229681381983 -0.1145808438176518 1.3193409097532796 35 41 37
0.0416783725128769 -0.0802902780034833 1.1577778414172752 240 236 235
0.0164921064467248 0.1615876612368719 1.1096656594202816 194 187 171
-0.0571445277495198 0.1820702907964346 1.1888007028647205 209 206 199
-0.2799902265168470 0.2343763176786902 1.3949154630057765 252 254 251
-0.0780101300860642 -0.2695382527455859 1.3811509624372253 41 48 54
0.8190812134372278 0.1453518819433914 1.3842574467267850 59 59 59
-0.0901339985532249 0.1865260740168640 1.2142394944187003 254 242 230
-0.0944761252235057 0.3052181640206321 0.8963242140362311 75 76 71
0.2791115779164884 -0.2668714278077153 0.9485517174495895 124 138 141
-0.1345011859098915 -0.2777169651137277 1.4277947262534871 103 113 123
0.2273501774518531 -0.1662259871765574 0.9959742802094530 211 209 210
-0.4206554151532149 -0.0047947836146947 1.6306091692981426 246 246 246
-0.4134340052824077 0.0545523899725615 1.5896982129103405 245 245 247
-0.4134340052824077 0.0545523899725615 1.5896982129103405 245 245 247
0.2762633049204901 0.0541059343697433 0.8679954673238987 122 143 162
-0.3122831066971702 0.2145123868756415 1.4448419420799361 157 151 137
0.0779443621636937 0.1725843312140756 1.0485959725597143 132 145 154
0.4087293931929293 -0.0145059679259913 1.0197526362957334 141 142 126
0.7171930333042009 -0.1449036707433942 1.3359603189114537 51 57 55
0.7171930333042009 -0.1449036707433942 1.3359603189114537 51 57 55
-0.0604921100689395 0.0240564002119449 1.2354443644422151 255 249 249
0.0104937512333436 0.0899041437647728 1.1435241935673035 147 161 170
0.0285614682355142 -0.0025094204141870 -0.0245380658604272 0 255 0
0.0497130028239884 -0.0023056777384600 -0.0277735885155770 0 255 0
0.2919898326876861 -0.0304495533069196 -0.1554490558612438 0 255 0
0.4451358286005563 -0.0394217855281988 -0.1810428278798946 0 255 0
